-17.156267166138,-0.928459703922,-0.274749636650
-18.229038238525,-1.581356048584,-0.259918391705
-19.228239059448,-1.538582921028,-0.250695168972
-19.916629791260,-1.513657569885,-0.242856025696
-20.797887802124,-1.725500822067,-0.237390160561
-21.459684371948,-1.608749985695,-0.293689340353
-22.475299835205,-1.387256741524,-0.208528637886
-23.208061218262,-1.575139403343,-0.241236954927
-23.683019638062,-1.578688979149,-0.175254762173
-24.336109161377,-1.515700101852,-0.199017673731
-24.831369400024,-1.765763521194,-0.156419605017
-25.456785202026,-1.559116125107,-0.148017346859
-25.603981018066,-1.633789539337,-0.168291211128
-25.891757965088,-1.468402743340,-0.132348448038
-26.142972946167,-1.475510716438,-0.132507860661
-26.162382125854,-1.275238394737,-0.128781378269
-26.831464767456,-1.292688131332,-0.123931743205
-27.133975982666,-1.537352442741,-0.161677837372
-27.341928482056,-1.537714481354,-0.154289364815
-27.521743774414,-1.579213142395,-0.187033504248
-28.093626022339,-1.491607427597,-0.182676255703
-28.543308258057,-1.228585004807,-0.129939526320
-28.806062698364,-1.233310222626,-0.157617628574
-29.441215515137,-1.320622801781,-0.228108406067
-29.817369461060,-1.495447397232,-0.190171241760
-29.977115631104,-1.381743073463,-0.209321796894
-30.236682891846,-1.342748165131,-0.178415775299
-30.236682891846,-1.342748165131,-0.178415775299
-30.685550689697,-1.324289917946,-0.180430889130
-30.685550689697,-1.324289917946,-0.180430889130
-30.877536773682,-1.158031940460,-0.183846533298
-31.302793502808,-1.311772346497,-0.187324047089
-31.537794113159,-1.320274233818,-0.214013397694
-32.083351135254,-1.313801288605,-0.216262042522
-32.475334167480,-1.352013349533,-0.141974419355
-32.914962768555,-1.294822216034,-0.228100776672
-32.914962768555,-1.294822216034,-0.228100776672
-33.796939849854,-1.214422702789,-0.231851220131
-34.169815063477,-0.950963735580,-0.235026478767
-34.988220214844,-0.947145462036,-0.254592925310
-35.772018432617,-1.044935464859,-0.206234365702
-36.239768981934,-1.144594788551,-0.269379675388
-36.752929687500,-1.080750107765,-0.259707868099
-37.544960021973,-0.921997666359,-0.232457906008
-38.253772735596,-0.951680779457,-0.239447027445
-38.779766082764,-0.972067594528,-0.263373315334
-39.331638336182,-0.728212118149,-0.255635052919
-39.890819549561,-0.778165936470,-0.276634514332
-40.480949401855,-0.745836138725,-0.277750670910
-41.905647277832,-0.751118183136,-0.298901528120
-42.958808898926,-0.667313933372,-0.301147371531
-43.332664489746,-0.847186207771,-0.300571501255
-44.350379943848,-0.878343939781,-0.292712837458
-45.124145507813,-0.653981685638,-0.255231320858
-45.374202728271,-0.723700046539,-0.304245680571
-46.983039855957,-0.735332727432,-0.241207033396
-47.846015930176,-0.672664225101,-0.319002360106
-48.580940246582,-0.533996403217,-0.227858036757
-49.072563171387,-0.669809341431,-0.307840645313
-50.602172851563,-0.709603667259,-0.309809237719
-51.755802154541,-0.582544445992,-0.305237263441
-52.290840148926,-1.060171365738,-0.306746572256
-53.753192901611,-0.949357748032,-0.325973778963
-54.894744873047,-0.792721152306,-0.319276541471
-55.453819274902,-0.647516965866,-0.330322623253
-57.361305236816,-0.146428823471,1.065583229065
-58.521160125732,-0.341747283936,1.006494641304
-59.871967315674,0.007791519165,0.073898047209
-61.715431213379,0.509078741074,0.140553280711
-63.101371765137,0.428006887436,0.876615881920
-65.499183654785,0.458682537079,1.189693927765
-68.274635314941,0.324617385864,1.142922639847
-69.595161437988,0.482876539230,1.177237749100
-71.293403625488,0.876931667328,1.231621146202
-72.915992736816,0.490791320801,1.307151556015
-75.635032653809,0.808772563934,1.143223047256
-77.779815673828,0.725524902344,-0.322656244040
-79.232955932617,0.983889818192,-0.340245306492
-81.309707641602,1.176954507828,-0.314583688974
-82.944755554199,1.336979627609,-0.310434460640
-85.011611938477,2.130013465881,-0.273155987263
-86.359222412109,2.993385553360,-0.254240661860
-88.351364135742,4.000467300415,-0.248980224133
-89.542633056641,5.784098625183,-0.197464168072
-89.901908874512,8.018630981445,-0.085509061813
-90.147857666016,9.437273979187,-0.121802993119
-89.393997192383,11.424778938293,-0.044595718384
-88.958106994629,12.677474021912,1.061554551125
-88.705474853516,14.754410743713,0.017651677132
-88.221916198730,16.927682876587,1.145822405815
-88.300727844238,18.127445220947,1.183511614799
-88.218658447266,20.261545181274,1.204018115997
-88.272827148438,21.756523132324,1.250763058662
-87.845504760742,23.833883285522,0.268708884716
-87.787933349609,25.881956100464,0.285240888596
-87.837432861328,26.982040405273,0.346079766750
-87.767768859863,28.938169479370,0.361174821854
-87.498229980469,30.760717391968,0.425807893276
-87.392562866211,31.753128051758,0.451912045479
-87.061233520508,33.225006103516,0.498578965664
-86.663955688477,35.029281616211,0.587734818459
-86.417900085449,36.288490295410,0.560577154160
-86.856079101563,37.828403472900,0.624760985374
-86.377861022949,38.497787475586,0.637758016586
-86.579269409180,39.300727844238,0.632969439030
-86.447311401367,40.566558837891,0.622401475906
-86.241645812988,42.279708862305,0.759647369385
-86.177131652832,43.362007141113,0.764549314976
-86.101730346680,45.738803863525,0.812428236008
-86.099288940430,46.921813964844,0.821677327156
-86.038925170898,48.048221588135,0.849150478840
-85.418212890625,48.880367279053,0.860418021679
-85.522361755371,50.083034515381,0.895428478718
-86.053634643555,52.408515930176,1.022193074226
-85.685150146484,54.712722778320,1.028573632240
-85.891151428223,56.073196411133,1.069230437279
-85.730979919434,57.647090911865,1.091223359108
-85.486961364746,59.155181884766,1.108500957489
-85.355300903320,59.908031463623,1.148617029190
-85.111526489258,62.267314910889,1.200741529465
-85.056144714355,64.661224365234,1.276161909103
-84.955070495605,68.049278259277,1.356207370758
-84.770568847656,69.926223754883,1.406878948212
-84.567131042480,71.358360290527,1.451094150543
-84.523727416992,74.074783325195,1.528678417206
-84.705924987793,76.670867919922,1.612990975380
-84.077323913574,79.169464111328,1.681999444962
-84.504981994629,81.462127685547,1.778549432755
-84.291381835938,83.073051452637,1.801879286766
-84.410247802734,86.851119995117,1.942871809006
-84.525138854980,90.004913330078,2.057427406311
-84.060890197754,92.195648193359,2.125148773193
-83.698616027832,94.226448059082,2.201544284821
-84.064674377441,96.299354553223,2.333929061890
-83.157737731934,101.337226867676,2.490785598755
-82.363746643066,104.030143737793,2.553259849548
-79.294494628906,104.416999816895,2.580217361450
-77.426811218262,104.275650024414,2.490240573883
-71.672897338867,103.932762145996,2.354706764221
-66.466102600098,103.652633666992,2.223788976669
-61.143783569336,103.344230651855,1.996730089188
-51.881690979004,103.121147155762,1.817663431168
-42.681217193604,102.801086425781,1.622733831406
-35.508449554443,101.841369628906,1.439161539078
-29.763259887695,101.228881835938,1.270077824593
-22.450139999390,100.743797302246,1.120951890945
-15.446754455566,98.720962524414,0.902436971664
-13.448428153992,96.172828674316,0.784403324127
-11.765657424927,91.754226684570,0.626194000244
-11.659600257874,87.744010925293,0.479733347893
-11.494427680969,83.014877319336,0.334565222263
-11.606388092041,78.818183898926,0.220908820629
-11.973168373108,76.200531005859,0.135885000229
-12.083728790283,72.018470764160,0.054841220379
-12.227623939514,64.582321166992,7.689812183380
-12.086301803589,62.698238372803,-0.214566707611
-12.256301879883,58.683025360107,-0.300532579422
-12.610709190369,54.831886291504,-0.373416572809
-12.717484474182,52.736843109131,-0.418018162251
-13.114134788513,47.940490722656,-0.502832174301
-13.601265907288,42.807868957520,-0.589726865292
-14.075180053711,36.024005889893,-0.688329815865
-13.784309387207,30.249858856201,-0.750506818295
-14.194533348083,24.691890716553,-0.789431631565
-14.084163665771,22.708845138550,-0.812435269356
-14.563400268555,10.178339004517,6.157025814056
